# .PCD v0.7 - Point Cloud Data file format
VERSION 0.7
FIELDS x y z
SIZE 4 4 4
TYPE F F F
COUNT 1 1 1
WIDTH 1463
HEIGHT 1
VIEWPOINT 0 0 0 1 0 0 0
POINTS 1463
DATA ascii
-0.25025901 -0.169423 0.845438
-0.08777 -0.219679 0.91723901
-0.094094999 -0.182228 0.93151802
-0.084968999 -0.211421 0.94501102
-0.095395997 -0.19246501 0.900065
-0.106863 -0.150234 0.91236401
-0.106206 -0.16295201 0.879686
-0.119027 -0.116919 0.88723397
-0.116651 -0.132677 0.85681301
-0.10712 -0.17755599 0.96437299
-0.095711999 -0.209115 0.97372198
-0.121812 -0.142157 0.94678998
-0.135241 -0.104891 0.91944999
-0.116559 -0.21334299 0.99438602
-0.13047899 -0.18004701 0.98766202
-0.14664701 -0.141775 0.97078001
-0.16057999 -0.101238 0.94147599
-0.171325 -0.00063099997 0.802755
-0.14783099 -0.035914 0.83944601
-0.148498 -0.012628 0.79754901
-0.171857 -0.026434001 0.85030502
-0.143823 -0.06814 0.88208199
-0.168796 -0.061427001 0.89921701
-0.132828 -0.035377 0.788284
-0.13148899 -0.055668 0.822402
-0.127207 -0.084193997 0.85641199
-0.129308 -0.060814999 0.778804
-0.12787899 -0.078400999 0.80597502
-0.123885 -0.103474 0.83209801
-0.14338399 -0.223922 1
-0.159495 -0.190281 0.99299902
-0.176337 -0.150791 0.97510898
-0.189803 -0.108902 0.94435602
-0.186759 -0.204742 0.98216301
-0.169313 -0.237617 0.99150503
-0.20333 -0.16551 0.96245497
-0.215561 -0.124016 0.93129498
-0.204174 -0.218894 0.95951301
-0.186782 -0.25043201 0.97182
-0.21945 -0.180885 0.93848801
-0.229974 -0.141008 0.90853602
-0.231327 -0.046103001 0.78275502
-0.22098599 -0.049252 0.84078598
-0.218034 -0.022278 0.79368299
-0.233531 -0.071066 0.82685399
-0.234025 -0.103489 0.870175
-0.22096799 -0.084184997 0.88891298
-0.19625901 -0.0050909999 0.80107701
-0.19829699 -0.032246999 0.84998101
-0.196803 -0.068130001 0.900473
-0.18995599 -0.258883 0.94468701
-0.205622 -0.228787 0.92994702
-0.21865501 -0.192518 0.90903699
-0.227336 -0.154975 0.88213599
-0.17990699 -0.261545 0.91716999
-0.19286799 -0.232822 0.90060401
-0.20344999 -0.198575 0.88059503
-0.210636 -0.16367701 0.85737503
-0.16965701 -0.22998799 0.87920099
-0.15943301 -0.25750899 0.89714599
-0.17847601 -0.19787 0.85983199
-0.18503501 -0.165538 0.83937699
-0.18967199 -0.115515 0.79470003
-0.210774 -0.093566999 0.78153801
-0.188417 -0.103502 0.76872498
-0.21346 -0.108382 0.80541301
-0.188692 -0.13709299 0.81792003
-0.21374901 -0.13261899 0.83157498
-0.22956599 -0.092748001 0.81674898
-0.226272 -0.073853001 0.786529
-0.230547 -0.120692 0.85011202
-0.13223401 -0.246738 0.89089203
-0.140494 -0.22009701 0.87197697
-0.14892501 -0.189941 0.85228401
-0.156073 -0.159665 0.83247602
-0.105612 -0.232686 0.898193
-0.112958 -0.206273 0.87930101
-0.122188 -0.177242 0.85894603
-0.13080101 -0.14787801 0.83807498
-0.140964 -0.082020998 0.77225
-0.140039 -0.097704001 0.79573202
-0.13678201 -0.120519 0.81728101
-0.162972 -0.110727 0.79221201
-0.16294201 -0.096651003 0.76899701
-0.16076601 -0.13246299 0.81285203
-0.093419999 -0.27267301 0.94674402
-0.086443998 -0.25689301 0.95734102
-0.094279997 -0.27217099 0.958404
-0.088545002 -0.26122099 0.94042099
-0.082709 -0.236505 0.95327502
-0.085911997 -0.24308001 0.93066299
-0.098867998 -0.270937 0.97131199
-0.092698 -0.25575799 0.97490799
-0.091104001 -0.235228 0.97649503
-0.105592 -0.26958999 0.98128498
-0.105242 -0.25810799 0.98787802
-0.108351 -0.239443 0.99337602
-0.122913 -0.26636899 0.99076599
-0.117331 -0.27723101 0.98062301
-0.13125101 -0.24907801 0.99827498
-0.13158099 -0.28481501 0.97711903
-0.14127301 -0.27611199 0.98605299
-0.153909 -0.26106501 0.99188298
-0.14327399 -0.28966701 0.97188902
-0.154706 -0.28442001 0.97507
-0.16972101 -0.27199 0.97610998
-0.156672 -0.28997099 0.95806497
-0.14121801 -0.293562 0.960545
-0.173259 -0.27903199 0.95348299
-0.150887 -0.29156199 0.94005901
-0.136843 -0.29498199 0.94729
-0.16557699 -0.28095099 0.93019301
-0.131612 -0.293208 0.93654698
-0.13900401 -0.28850499 0.92668903
-0.148763 -0.27696201 0.91325003
-0.120672 -0.28095201 0.92420101
-0.118378 -0.288688 0.93797201
-0.12543 -0.26710099 0.90841299
-0.101843 -0.27075201 0.92935401
-0.103917 -0.280918 0.94183803
-0.102059 -0.254473 0.91487497
-0.31285301 -0.132201 0.79728001
-0.32287401 -0.150975 0.78239298
-0.29406399 -0.122235 0.81399202
-0.27208799 -0.124161 0.82751602
-0.29865599 -0.120851 0.775307
-0.30684301 -0.138678 0.75813502
-0.28192699 -0.112144 0.794707
-0.26159999 -0.115246 0.81051099
-0.282987 -0.108667 0.75526202
-0.28866199 -0.124941 0.73688799
-0.26926199 -0.101617 0.77610099
-0.251513 -0.10588 0.79318202
-0.30693299 -0.19771001 0.77208
-0.28719601 -0.212763 0.77831101
-0.32012701 -0.174861 0.77359003
-0.28965399 -0.185377 0.74657601
-0.27067101 -0.201215 0.75401098
-0.30302399 -0.16224299 0.748106
-0.27030799 -0.17040101 0.72474301
-0.25274199 -0.186626 0.73289502
-0.28357801 -0.14754599 0.72623402
-0.23604099 -0.18658 0.82338798
-0.246158 -0.205191 0.80850899
-0.26512399 -0.214853 0.79181999
-0.22493599 -0.178286 0.80641401
-0.23325101 -0.19598401 0.78923202
-0.25021699 -0.204448 0.76982301
-0.214992 -0.16741399 0.789424
-0.220823 -0.183726 0.77098697
-0.23483799 -0.19085 0.75003898
-0.25225499 -0.139377 0.833731
-0.238883 -0.16253 0.83219898
-0.24248999 -0.13121399 0.81795102
-0.228883 -0.15459099 0.816441
-0.23379099 -0.122066 0.80139202
-0.220231 -0.144848 0.80001402
-0.26844499 -0.095495999 0.73965698
-0.27150601 -0.110216 0.72139001
-0.25784999 -0.090023004 0.76041198
-0.242797 -0.095207997 0.77751797
-0.25662601 -0.094466999 0.711119
-0.25617501 -0.081307001 0.72863501
-0.24869201 -0.077495001 0.748537
-0.236306 -0.083653003 0.76502502
-0.244789 -0.077532001 0.70473301
-0.24696299 -0.066101 0.72174299
-0.24259099 -0.064355999 0.74103498
-0.232859 -0.071956001 0.75707901
-0.25196001 -0.154331 0.70937401
-0.235884 -0.1707 0.71760601
-0.26511499 -0.131845 0.71081001
-0.22120801 -0.154167 0.70747
-0.23583201 -0.13756301 0.69950902
-0.248906 -0.115258 0.70092398
-0.20949 -0.137511 0.70097601
-0.22268499 -0.1202 0.69324303
-0.23571099 -0.097663999 0.694731
-0.206476 -0.15415899 0.77435201
-0.209719 -0.169276 0.75592601
-0.220649 -0.175488 0.73487502
-0.20076001 -0.15392999 0.74470001
-0.20010599 -0.13986599 0.76251
-0.208619 -0.159421 0.72425199
-0.19476099 -0.139092 0.73759001
-0.196716 -0.126164 0.75504702
-0.19953901 -0.14361501 0.71746802
-0.226539 -0.11118 0.78591198
-0.213048 -0.132929 0.78477299
-0.221479 -0.099353001 0.77328199
-0.208029 -0.119979 0.772412
-0.21944501 -0.087770998 0.76525998
-0.206012 -0.107528 0.76460302
-0.23598801 -0.059322 0.70030302
-0.240798 -0.049899001 0.71829802
-0.239567 -0.050886001 0.73838699
-0.23262399 -0.060958002 0.75537699
-0.22711501 -0.040033001 0.69354999
-0.234501 -0.032799002 0.71669298
-0.23650999 -0.037193 0.740767
-0.23314901 -0.051895 0.762851
-0.224098 -0.014915 0.71509302
-0.22952799 -0.023341 0.74826902
-0.200589 -0.121275 0.69617897
-0.212707 -0.102671 0.68823802
-0.225756 -0.079318002 0.68988597
-0.190712 -0.106219 0.68937302
-0.203787 -0.0867 0.68039697
-0.217125 -0.061967 0.68204099
-0.191654 -0.12588 0.73473102
-0.196237 -0.114632 0.75304902
-0.193342 -0.128832 0.71367198
-0.18783499 -0.114277 0.73569101
-0.194996 -0.106639 0.75735199
-0.186519 -0.115006 0.71141303
-0.178817 -0.103975 0.73989397
-0.174697 -0.101866 0.70909202
-0.220769 -0.077898003 0.76361197
-0.20726 -0.097292997 0.76287901
-0.22377101 -0.072306998 0.770109
-0.209723 -0.091750003 0.76823699
-0.030107001 -0.108402 0.44926801
-0.029696001 -0.13075399 0.44980001
-0.020795001 -0.115198 0.43773901
-0.017928001 -0.141177 0.43799299
-0.039524 -0.085693002 0.44637099
-0.030828999 -0.090825997 0.43491501
-0.055610999 -0.068558 0.44111601
-0.046482 -0.073071003 0.429683
-0.075460002 -0.061845001 0.43398601
-0.065631002 -0.066032998 0.42261201
-0.093869999 -0.066063002 0.42734501
-0.083843 -0.070173003 0.41589099
-0.10507 -0.080642 0.424036
-0.096111 -0.085041001 0.412117
-0.10446 -0.103838 0.426081
-0.095895998 -0.10955 0.41376501
-0.094209 -0.128784 0.43167001
-0.087061003 -0.136557 0.41821399
-0.077725001 -0.147558 0.43825701
-0.072476998 -0.15920199 0.42339399
-0.058196001 -0.153064 0.44402799
-0.051651001 -0.16479699 0.430298
-0.040649999 -0.146621 0.44795999
-0.032474998 -0.158134 0.435256
-0.131891 -0.026047001 0.756778
-0.128425 -0.052981999 0.75083399
-0.12820201 -0.025171001 0.729087
-0.123788 -0.052793 0.721766
-0.146744 -0.001259 0.761329
-0.14221799 0.00098400004 0.73138702
-0.168255 0.013102 0.762564
-0.16165499 0.017841 0.727548
-0.192211 0.010964 0.76005203
-0.18574101 0.017609 0.72388202
-0.21400701 -0.0033740001 0.75469398
-0.207743 0.004952 0.719262
-0.303738 -0.179989 0.861803
-0.313209 -0.185195 0.85761398
-0.296395 -0.192544 0.86106402
-0.30584201 -0.197707 0.85692102
-0.158935 -0.091861002 0.74219501
-0.15490399 -0.090152003 0.71223199
-0.139523 -0.075103 0.74590898
-0.135675 -0.074061997 0.71668798
-0.106439 -0.28345099 0.95524597
-0.111099 -0.282002 0.968593
-0.121403 -0.29145399 0.95138001
-0.125992 -0.28994799 0.96486598
0.01477 -0.02344 0.69064802
0.020086 -0.037283 0.69270998
0.016098 -0.027411999 0.70009899
0.017825 -0.028318999 0.68091899
0.027835 -0.046813998 0.68394601
0.024533 -0.034380998 0.66903198
0.037409 -0.054706998 0.67535299
0.033643 -0.040495999 0.65833998
0.026378 -0.041506 0.707569
0.020570001 -0.030536 0.710913
0.036054 -0.052026 0.70305198
0.046762001 -0.060279001 0.69703698
0.026581001 -0.031762 0.71975702
0.034288999 -0.039670002 0.72118002
0.045828 -0.048521999 0.72087097
0.057711001 -0.055693999 0.71718597
0.036502 0.010051 0.68810099
0.022971001 -0.0029800001 0.69370401
0.029588001 0.0051620002 0.6965
0.028216001 -0.00030700001 0.68016303
0.046921 0.014425 0.677176
0.036979001 0.001451 0.66592598
0.059138 0.016407 0.66675299
0.047979001 0.001141 0.65407598
0.017212 -0.013736 0.69148499
0.021051999 -0.014559 0.677549
0.028348999 -0.016658001 0.66300303
0.038097002 -0.019991999 0.65107
0.039661001 -0.0023960001 0.72664201
0.047263 0.0081280004 0.718023
0.035941001 0.0020570001 0.71830702
0.049454998 -0.00094400003 0.72976702
0.060396999 0.012407 0.71544999
0.062261 -0.00016900001 0.73076701
0.075312003 0.000174 0.727588
0.073592 0.014653 0.71006
0.042626001 0.012181 0.70249701
0.032189999 0.0048139999 0.70703501
0.055041999 0.017836999 0.69550198
0.068040997 0.020723 0.68741798
0.040789001 -0.029019 0.729904
0.029789001 -0.022741999 0.724244
0.054115999 -0.035640001 0.73262799
0.066825002 -0.040697001 0.73038
0.034827001 -0.011618 0.72692102
0.046296 -0.014596 0.73318398
0.059882998 -0.017749 0.73639297
0.072904997 -0.020062 0.73434299
0.047130998 -0.059962999 0.66799903
0.043926999 -0.045671001 0.65109801
0.056366 -0.062779002 0.66105598
0.054218002 -0.049447 0.64517999
0.064741001 -0.063648 0.65322101
0.063368 -0.051500998 0.63735902
0.056235 -0.064919002 0.689417
0.064456999 -0.066491999 0.68093503
0.07198 -0.066018999 0.67254698
0.067249998 -0.059186 0.70924199
0.074956998 -0.059498999 0.69920301
0.082142003 -0.057760999 0.68999797
0.059898999 -0.0018420001 0.64646298
0.071552001 0.014861 0.65881699
0.071282998 -0.0059139999 0.64002401
0.082970001 0.011615 0.65117699
0.080638997 -0.0089469999 0.63046402
0.092306003 0.0092369998 0.64059699
0.049201999 -0.024311 0.64372098
0.060224 -0.028539 0.63793302
0.069634996 -0.03139 0.629435
0.086496003 0.00043399999 0.71906197
0.085464999 0.014963 0.70161599
0.096318997 0.00139 0.70754999
0.096087001 0.014767 0.69106299
0.105937 0.0039280001 0.69629699
0.105898 0.015828 0.67964101
0.080395997 0.020357 0.679187
0.091554001 0.018563 0.67005402
0.101135 0.017741 0.65884101
0.076730996 -0.042720001 0.72214001
0.084728003 -0.042016 0.71096599
0.092476003 -0.039331 0.70092398
0.083393998 -0.020688999 0.72589397
0.092229001 -0.019474 0.71418703
0.101003 -0.01643 0.70342702
0.072233997 -0.063456997 0.64346099
0.070492998 -0.052345 0.62474102
0.080224998 -0.064667001 0.63183498
0.075769998 -0.055835001 0.60573
0.090448 -0.070129 0.61866802
0.079640001 -0.066661 0.57905501
0.079566002 -0.064718999 0.66514403
0.088844001 -0.064622 0.65935999
0.101655 -0.067959003 0.65575999
0.090108 -0.055303998 0.68435001
0.100144 -0.054280002 0.68417197
0.113531 -0.057048 0.691172
0.098975003 0.0091220001 0.62422699
0.086722001 -0.0098670004 0.61429399
0.104401 0.0079659997 0.60076201
0.089290999 -0.011827 0.59123302
0.110512 0.001293 0.569282
0.088353001 -0.019037999 0.56180501
0.076081 -0.032488 0.61471498
0.078899004 -0.035101 0.59328598
0.077600002 -0.043404002 0.565418
0.116691 0.0084990002 0.68843502
0.115668 0.019118 0.66862601
0.130639 0.013814 0.68664801
0.12750199 0.022436 0.65943998
0.143838 0.022789 0.65354002
0.150021 0.018151 0.69350398
0.109274 0.019270999 0.64476198
0.11818 0.020442 0.62859499
0.13057999 0.017526001 0.61151397
0.101271 -0.035491001 0.69563299
0.110952 -0.031624001 0.69689298
0.120998 -0.028934 0.70604998
0.110989 -0.011767 0.69738901
0.122181 -0.0064579998 0.69812298
0.134252 -0.001668 0.70724398
0.066826001 -0.056639001 0.45892599
0.063202001 -0.054823 0.49129599
0.080779001 -0.039235 0.48616299
0.050014 -0.072866 0.46438199
0.053467002 -0.076888002 0.49524099
0.040428001 -0.094976999 0.46777001
0.053642999 -0.099008001 0.49762499
0.040371001 -0.116785 0.46901101
0.076948002 -0.035463002 0.52489102
0.096005999 -0.018986 0.52309102
0.066949002 -0.058176 0.52905202
0.067767002 -0.080849998 0.53481698
0.022107 -0.019176999 0.71501201
0.027760999 -0.0077479999 0.7177
0.017750001 -0.016115 0.70384198
0.023644 -0.0048639998 0.70634699
0.107404 -0.056744002 0.44575
0.136245 -0.059358001 0.472193
0.118995 -0.071902998 0.44316199
0.123929 -0.043081 0.47398099
0.103093 -0.035689 0.47942501
0.087870002 -0.051256001 0.45193499
0.154673 -0.045223001 0.50917202
0.14175899 -0.027578 0.510445
0.119755 -0.017959001 0.51554298
0.17201 -0.032133002 0.55097997
0.158915 -0.013152 0.55243599
0.136078 -0.001232 0.55840701
0.176137 0.018199001 0.68755901
0.166333 0.017673001 0.64622903
0.18721201 0.003727 0.641083
0.198745 0.0047479998 0.68268698
0.214292 -0.019934 0.679609
0.200113 -0.017986 0.63821
0.15291999 0.011387 0.60228699
0.174146 -0.0023620001 0.596793
0.186709 -0.022519 0.59469599
0.106534 -0.118015 0.45241299
0.103719 -0.119575 0.48916599
0.088735998 -0.13500901 0.45948601
0.122576 -0.104012 0.48215199
0.117952 -0.094478004 0.44602001
0.134927 -0.081672996 0.47556201
0.12052 -0.103751 0.525029
0.14016999 -0.089258999 0.51854998
0.153189 -0.067666002 0.51246399
0.136893 -0.091151997 0.56372702
0.156976 -0.076921999 0.55825299
0.170357 -0.055213999 0.553424
0.207369 -0.047738999 0.66633999
0.196591 -0.043923002 0.633928
0.18300401 -0.068677999 0.63461697
0.193241 -0.074331999 0.66518301
0.16357 -0.085440002 0.64009702
0.17515101 -0.093160003 0.67640603
0.184637 -0.046813998 0.595092
0.17117099 -0.069729 0.59796703
0.151118 -0.084812 0.602391
0.064672999 -0.115434 0.49707901
0.050976001 -0.13271099 0.46803999
0.068677999 -0.139625 0.46485901
0.082892001 -0.123091 0.494279
0.080036998 -0.097901002 0.53312302
0.099028997 -0.106322 0.529948
0.094637997 -0.084242001 0.57333398
0.114875 -0.093236998 0.56856698
0.107552 -0.080531999 0.61217898
0.128754 -0.087139003 0.606915
0.118892 -0.078603998 0.64942098
0.140526 -0.086098 0.64408797
0.128653 -0.075452998 0.68475997
0.15039 -0.087964997 0.67958999
0.32548699 -0.17877699 0.85015899
0.32392201 -0.16310599 0.84750199
0.31908301 -0.172916 0.85527998
0.33130199 -0.174815 0.84112501
0.335076 -0.169118 0.82612997
0.32584599 -0.153155 0.83502501
0.32261401 -0.14290801 0.81805801
0.33309501 -0.161258 0.80609798
0.30977201 -0.16778301 0.85957003
0.311084 -0.15606201 0.85411
0.30928701 -0.144136 0.84482902
0.30369499 -0.13270999 0.83139801
0.300504 -0.16503701 0.86193401
0.29668999 -0.15587001 0.859016
0.290362 -0.14482901 0.85256898
0.28197801 -0.133801 0.84209502
0.306941 -0.210256 0.84841001
0.31987 -0.205726 0.83729702
0.314412 -0.201609 0.84962702
0.30729699 -0.21580499 0.83872199
0.305657 -0.219708 0.82297999
0.322285 -0.207748 0.81968403
0.31862 -0.205561 0.797526
0.29949999 -0.219321 0.80233198
0.32881799 -0.190474 0.838175
0.32146701 -0.18966401 0.85027403
0.333184 -0.189022 0.82083899
0.33105001 -0.184085 0.798913
0.28206199 -0.196758 0.85995501
0.28029299 -0.20900799 0.85082102
0.28906801 -0.203242 0.85743701
0.27274099 -0.19717801 0.856381
0.270143 -0.211707 0.84049302
0.26087099 -0.195824 0.84925002
0.248156 -0.19238301 0.838229
0.25869501 -0.21059901 0.82629198
0.29310301 -0.215901 0.84432101
0.298329 -0.208268 0.85325497
0.28673601 -0.220532 0.83077401
0.277724 -0.22054701 0.81299901
0.284318 -0.166237 0.86113298
0.29368901 -0.17444199 0.86319703
0.273738 -0.15692 0.855919
0.26279801 -0.147696 0.84687001
0.275397 -0.18164 0.86014003
0.28668401 -0.18649501 0.86244202
0.26280501 -0.17584001 0.85468
0.25025901 -0.169423 0.845438
0.08777 -0.219679 0.91723901
0.094094999 -0.182228 0.93151802
0.095395997 -0.19246501 0.900065
0.084968999 -0.211421 0.94501102
0.10712 -0.17755599 0.96437299
0.095711999 -0.209115 0.97372198
0.116559 -0.21334299 0.99438602
0.13047899 -0.18004701 0.98766202
0.106863 -0.150234 0.91236401
0.106206 -0.16295201 0.879686
0.121812 -0.142157 0.94678998
0.14664701 -0.141775 0.97078001
0.119027 -0.116919 0.88723397
0.116651 -0.132677 0.85681301
0.135241 -0.104891 0.91944999
0.16057999 -0.101238 0.94147599
0.171325 -0.00063099997 0.802755
0.14783099 -0.035914 0.83944601
0.171857 -0.026434001 0.85030502
0.148498 -0.012628 0.79754901
0.132828 -0.035377 0.788284
0.13148899 -0.055668 0.822402
0.129308 -0.060814999 0.778804
0.12787899 -0.078400999 0.80597502
0.143823 -0.06814 0.88208199
0.168796 -0.061427001 0.89921701
0.127207 -0.084193997 0.85641199
0.123885 -0.103474 0.83209801
0.14338399 -0.223922 1
0.159495 -0.190281 0.99299902
0.186759 -0.204742 0.98216301
0.169313 -0.237617 0.99150503
0.204174 -0.218894 0.95951301
0.186782 -0.25043201 0.97182
0.176337 -0.150791 0.97510898
0.20333 -0.16551 0.96245497
0.21945 -0.180885 0.93848801
0.189803 -0.108902 0.94435602
0.215561 -0.124016 0.93129498
0.229974 -0.141008 0.90853602
0.231327 -0.046103001 0.78275502
0.220985 -0.049252 0.84078598
0.233531 -0.071066 0.82685399
0.218034 -0.022278 0.79368299
0.19625901 -0.0050909999 0.80107701
0.19829699 -0.032246999 0.84998101
0.234025 -0.103489 0.870175
0.22096799 -0.084184997 0.88891298
0.196803 -0.068130001 0.900473
0.18995599 -0.258883 0.94468701
0.205622 -0.228787 0.92994702
0.17990699 -0.261545 0.91716999
0.19286899 -0.232822 0.90060401
0.16965701 -0.22998799 0.87920099
0.15943301 -0.25750899 0.89714599
0.21865501 -0.192518 0.90903699
0.20344999 -0.198575 0.88059503
0.17847601 -0.19787 0.85983199
0.227336 -0.154975 0.88213599
0.210636 -0.16367701 0.85737503
0.18503401 -0.165538 0.83937699
0.210774 -0.093566999 0.78153801
0.18967199 -0.115515 0.79470003
0.188417 -0.103502 0.76872498
0.21346 -0.108382 0.80541301
0.22956599 -0.092748001 0.81674898
0.226272 -0.073853001 0.786529
0.188692 -0.13709299 0.81792003
0.21374901 -0.13261899 0.83157498
0.230547 -0.120692 0.85011202
0.13223401 -0.246738 0.89089203
0.140494 -0.22009701 0.87197697
0.105612 -0.232686 0.898193
0.112958 -0.206273 0.87930101
0.14892501 -0.189941 0.85228401
0.122188 -0.177242 0.85894603
0.156073 -0.159665 0.83247602
0.13080101 -0.14787801 0.83807498
0.140964 -0.082020998 0.77225
0.14004 -0.097704001 0.79573202
0.162972 -0.110727 0.79221201
0.16294201 -0.096651003 0.76899701
0.13678201 -0.120519 0.81728101
0.16076601 -0.13246299 0.81285203
0.093419999 -0.27267301 0.94674402
0.086443998 -0.25689301 0.95734102
0.088545002 -0.26122099 0.94042099
0.094279997 -0.27217099 0.958404
0.098867998 -0.270937 0.97131199
0.092698 -0.25575799 0.97490799
0.105592 -0.26958999 0.98128498
0.105242 -0.25810799 0.98787802
0.082709 -0.236505 0.95327502
0.085911997 -0.24308001 0.93066299
0.091104001 -0.235228 0.97649503
0.108351 -0.239443 0.99337602
0.122913 -0.26636899 0.99076599
0.117331 -0.27723101 0.98062301
0.13158099 -0.28481501 0.97711903
0.14127301 -0.27611199 0.98605299
0.14327399 -0.28966701 0.97188902
0.154706 -0.28442001 0.97507
0.13125101 -0.24907801 0.99827498
0.153909 -0.26106501 0.99188298
0.16972101 -0.27199 0.97610998
0.156672 -0.28997099 0.95806497
0.14121801 -0.293562 0.960545
0.150886 -0.29156199 0.94005901
0.136843 -0.29498199 0.94729
0.131612 -0.293208 0.93654698
0.13900401 -0.28850499 0.92668903
0.173259 -0.27903199 0.95348299
0.16557699 -0.28095099 0.93019301
0.148763 -0.27696201 0.91325003
0.120672 -0.28095201 0.92420101
0.118378 -0.288688 0.93797201
0.101842 -0.27075201 0.92935401
0.103917 -0.280918 0.94183803
0.12543 -0.26710099 0.90841299
0.102059 -0.254473 0.91487497
0.31285301 -0.132201 0.79728001
0.32287401 -0.150975 0.78239298
0.29865599 -0.120851 0.775307
0.30684301 -0.138678 0.75813502
0.282987 -0.108667 0.75526202
0.28866199 -0.124941 0.73688799
0.29406399 -0.122235 0.81399202
0.28192601 -0.112144 0.794707
0.26926199 -0.101617 0.77610099
0.27208799 -0.124161 0.82751602
0.26159999 -0.115246 0.81051099
0.251513 -0.10588 0.79318202
0.30693299 -0.19771001 0.77208
0.28719601 -0.212763 0.77831101
0.28965399 -0.185377 0.74657601
0.27067101 -0.201215 0.75401098
0.27030799 -0.17039999 0.72474301
0.25274199 -0.186626 0.73289502
0.32012701 -0.174861 0.77359003
0.30302399 -0.16224299 0.748106
0.28357801 -0.14754599 0.72623402
0.23604099 -0.18658 0.82338798
0.246158 -0.205191 0.80850899
0.22493599 -0.178286 0.80641401
0.23325101 -0.19598401 0.78923202
0.214993 -0.16741399 0.789424
0.220823 -0.183726 0.77098697
0.26512399 -0.214853 0.79181999
0.25021699 -0.204448 0.76982301
0.23483799 -0.19085 0.75003898
0.25225499 -0.139377 0.833731
0.24248999 -0.13121399 0.81795102
0.23379099 -0.122066 0.80139202
0.238883 -0.16253 0.83219898
0.228883 -0.15459099 0.816441
0.220231 -0.144848 0.80001402
0.26844499 -0.095495999 0.73965698
0.27150601 -0.110216 0.72139001
0.25662601 -0.094466999 0.711119
0.25617501 -0.081307001 0.72863501
0.244789 -0.077532001 0.70473301
0.24696299 -0.066101 0.72174299
0.25784999 -0.090023004 0.76041198
0.24869201 -0.077495001 0.748537
0.24259099 -0.064355999 0.74103498
0.242797 -0.095207997 0.77751797
0.236306 -0.083653003 0.76502502
0.232859 -0.071956001 0.75707901
0.25196001 -0.154331 0.70937401
0.235884 -0.1707 0.71760601
0.22120801 -0.154167 0.70747
0.23583201 -0.13756301 0.69950902
0.20949 -0.137511 0.70097601
0.22268499 -0.1202 0.69324303
0.26511499 -0.131845 0.71081001
0.248906 -0.115258 0.70092398
0.23571099 -0.097663999 0.694731
0.206476 -0.15415899 0.77435201
0.209719 -0.169276 0.75592601
0.20076001 -0.15392999 0.74470001
0.20010599 -0.13986599 0.76251
0.19476099 -0.139092 0.73759001
0.196716 -0.126164 0.75504702
0.220649 -0.175488 0.73487502
0.208619 -0.159421 0.72425199
0.19953901 -0.14361501 0.71746802
0.226539 -0.11118 0.78591198
0.221479 -0.099353001 0.77328199
0.21944501 -0.087770998 0.76525998
0.213048 -0.132929 0.78477299
0.208029 -0.119979 0.772412
0.206012 -0.107528 0.76460302
0.23598801 -0.059322 0.70030302
0.240798 -0.049899001 0.71829802
0.227116 -0.040033001 0.69354999
0.234501 -0.032799002 0.71669298
0.224098 -0.014915 0.71509302
0.239567 -0.050886001 0.73838699
0.23650999 -0.037193 0.740767
0.22952799 -0.023341 0.74826902
0.23262399 -0.060958002 0.75537699
0.23314901 -0.051895 0.762851
0.200589 -0.121275 0.69617897
0.212707 -0.102671 0.68823802
0.190712 -0.106219 0.68937302
0.203787 -0.0867 0.68039697
0.225756 -0.079318002 0.68988597
0.217125 -0.061967 0.68204099
0.191654 -0.12588 0.73473102
0.196237 -0.114632 0.75304902
0.18783499 -0.114277 0.73569101
0.194996 -0.106639 0.75735199
0.178817 -0.103975 0.73989397
0.193342 -0.128832 0.71367198
0.186519 -0.115006 0.71141303
0.174697 -0.101866 0.70909202
0.220769 -0.077898003 0.76361197
0.22377101 -0.072306998 0.770109
0.20726 -0.097292997 0.76287901
0.209723 -0.091750003 0.76823699
0.030102 -0.108402 0.44926801
0.029695 -0.13075399 0.44980001
0.039515998 -0.085693002 0.44637099
0.055601999 -0.068558 0.44111601
0.020755 -0.115198 0.43773901
0.017917 -0.141177 0.43799299
0.030764 -0.090825997 0.43491501
0.046406001 -0.073071003 0.429683
0.075452 -0.061845001 0.43398601
0.093865998 -0.066063002 0.42734501
0.105068 -0.080642 0.424036
0.065564997 -0.066032998 0.42261201
0.083802 -0.070173003 0.41589099
0.096095003 -0.085041001 0.412117
0.104459 -0.103838 0.426081
0.094209 -0.128784 0.43167001
0.077725001 -0.147558 0.43825701
0.095890999 -0.10955 0.41376501
0.087059997 -0.136557 0.41821399
0.072476998 -0.15920199 0.42339399
0.058196001 -0.153064 0.44402799
0.040649001 -0.146621 0.44795999
0.051649999 -0.16479699 0.430298
0.032472 -0.158134 0.435256
0.131891 -0.026047001 0.756778
0.128425 -0.052981999 0.75083399
0.146744 -0.001259 0.761329
0.168255 0.013102 0.762564
0.12820201 -0.025171001 0.729087
0.123788 -0.052793 0.721766
0.14221799 0.00098400004 0.73138702
0.16165499 0.017841 0.727548
0.192211 0.010964 0.76005203
0.21400701 -0.0033740001 0.75469398
0.18574101 0.017609 0.72388202
0.207743 0.004952 0.719262
0.303738 -0.179989 0.861803
0.296395 -0.192544 0.86106402
0.313209 -0.185195 0.85761398
0.30584201 -0.197707 0.85692102
0.158935 -0.091861002 0.74219501
0.139523 -0.075103 0.74590898
0.15490399 -0.090152003 0.71223199
0.135675 -0.074061997 0.71668798
0.106439 -0.28345099 0.95524597
0.121403 -0.29145399 0.95138001
0.111099 -0.282002 0.968593
0.125992 -0.28994799 0.96486598
-0.084274001 -0.127666 -0.98986501
-0.068173997 -0.104968 -0.98377299
-0.081501998 -0.132328 -0.98301798
-0.075746998 -0.10455 -0.991575
-0.057971001 -0.070894003 -0.98430401
-0.066768996 -0.071047999 -0.99244499
-0.059602998 -0.032763999 -0.99290699
-0.051286999 -0.033457998 -0.98475099
-0.063923001 -0.10508 -0.97193599
-0.078847997 -0.133617 -0.97158098
-0.053498998 -0.071070001 -0.972166
-0.047219999 -0.034086 -0.97246701
-0.077133 -0.131173 -0.95650899
-0.062864996 -0.103536 -0.95650899
-0.053273 -0.070450999 -0.956155
-0.047749002 -0.034210999 -0.95598501
-0.076961003 -0.125002 -0.939134
-0.064796001 -0.099467002 -0.938357
-0.057025999 -0.068235002 -0.93685502
-0.052855 -0.033466 -0.93579203
-0.078070998 -0.116541 -0.92237598
-0.069223002 -0.093938001 -0.91994202
-0.063763 -0.064898998 -0.91676199
-0.061058 -0.031762 -0.91455102
-0.079988003 -0.107595 -0.90956801
-0.075580001 -0.088496998 -0.90410799
-0.072306 -0.061248001 -0.89883202
-0.070513003 -0.029082 -0.89549798
-0.048287999 0.004073 -0.98520499
-0.055957001 0.0052390001 -0.99330699
-0.048216 0.038780998 -0.985668
-0.055312 0.040047001 -0.99368501
-0.050083 0.067836002 -0.98609102
-0.056593999 0.069282003 -0.99401599
-0.044633999 0.003266 -0.97295201
-0.044902999 0.037966002 -0.97356802
-0.047093 0.066887997 -0.97421497
-0.045649 0.002717 -0.95641702
-0.046172 0.037145 -0.95731002
-0.04848 0.065706998 -0.95837301
-0.051509999 0.0024349999 -0.93605399
-0.052308001 0.036093 -0.937356
-0.054586999 0.063891001 -0.93910402
-0.060495 0.0028959999 -0.91459799
-0.061547998 0.035535 -0.916399
-0.063712001 0.062373001 -0.919011
-0.070408002 0.0046879998 -0.89536703
-0.071621001 0.036428001 -0.89770001
-0.073638998 0.062419001 -0.90124297
-0.053049002 0.089235999 -0.986422
-0.058809999 0.091123 -0.994201
-0.056855001 0.104305 -0.98649198
-0.061317001 0.105961 -0.99385399
-0.063552998 0.114744 -0.99252999
-0.061386 0.115195 -0.98612201
-0.050434999 0.087885 -0.974778
-0.054811001 0.102715 -0.975124
-0.060265999 0.114115 -0.97513199
-0.051886 0.086098999 -0.95935899
-0.056306001 0.100257 -0.96003699
-0.061806001 0.111176 -0.96021402
-0.057806 0.083338 -0.94076002
-0.061894 0.09646 -0.94199997
-0.066898003 0.106406 -0.94254601
-0.066543996 0.080775 -0.921606
-0.069861002 0.092694998 -0.92385501
-0.073544003 0.101234 -0.92554897
-0.075934999 0.080008 -0.905002
-0.077928998 0.090793997 -0.90891403
-0.079029001 0.097439997 -0.91314203
-0.13932399 -0.153047 -0.99185199
-0.12115 -0.164125 -0.98314101
-0.143407 -0.171859 -0.98300999
-0.117578 -0.146981 -0.99177498
-0.09962 -0.150847 -0.98318702
-0.098177999 -0.137778 -0.99126601
-0.120896 -0.169058 -0.97061801
-0.143677 -0.17697801 -0.97014898
-0.098465003 -0.154764 -0.97115803
-0.14137299 -0.17199101 -0.953583
-0.118363 -0.16494299 -0.95464599
-0.096212998 -0.151573 -0.95578599
-0.137556 -0.15993001 -0.93402898
-0.114854 -0.15442801 -0.93597698
-0.094076999 -0.143048 -0.93800998
-0.132576 -0.141625 -0.91372699
-0.110665 -0.13809399 -0.91671598
-0.092110001 -0.129884 -0.92005002
-0.126601 -0.117356 -0.895298
-0.105844 -0.116007 -0.89928699
-0.090075999 -0.112503 -0.90442401
-0.119899 -0.087577 -0.88065702
-0.100341 -0.088095002 -0.88567799
-0.085894004 -0.088147998 -0.893457
-0.113145 -0.053438999 -0.86890399
-0.095232002 -0.055849999 -0.87577403
-0.082309 -0.058409002 -0.885409
-0.091481 -0.021096 -0.86934298
-0.107112 -0.016266 -0.858392
-0.080086 -0.025456 -0.88091898
-0.088338003 0.012618 -0.86898899
-0.097612001 0.01718 -0.85772198
-0.079566002 0.0081500001 -0.880687
-0.089359 0.043506 -0.87210798
-0.098242 0.047633 -0.860825
-0.080775 0.039368 -0.88349903
-0.093323 0.069123 -0.877415
-0.10729 0.073986001 -0.86684
-0.082938999 0.064902 -0.88796598
-0.094573997 0.086544998 -0.885355
-0.108025 0.091158003 -0.87950897
-0.084693 0.082327001 -0.89331001
-0.094448999 0.098549999 -0.89425802
-0.107111 0.103819 -0.890854
-0.085444003 0.093644999 -0.899957
-0.104609 0.114226 -0.90392298
-0.092344001 0.1079 -0.90607202
-0.084326997 0.101788 -0.90919101
-0.100783 0.124073 -0.92081302
-0.087875001 0.116692 -0.92227602
-0.079352997 0.108805 -0.924016
-0.096722998 0.13281099 -0.93981999
-0.082695 0.124686 -0.94085199
-0.073357999 0.115718 -0.94193
-0.093722001 0.139331 -0.95828801
-0.078763999 0.13080101 -0.95902002
-0.06876 0.121294 -0.959782
-0.092716999 0.142553 -0.97393
-0.077491 0.13399 -0.97439998
-0.067303002 0.124412 -0.974877
-0.07807 0.133315 -0.98626
-0.093212999 0.141507 -0.98603702
-0.068023004 0.124395 -0.986368
-0.079144001 0.127867 -0.99427003
-0.094351999 0.13525 -0.99425501
-0.069282003 0.120681 -0.993846
-0.095466003 0.123002 -0.99854499
-0.079506002 0.116587 -0.998375
-0.068571001 0.110647 -0.99715799
-0.096629001 0.104626 -0.99999201
-0.079476997 0.099215001 -0.99976099
-0.067308001 0.094568998 -0.99825197
-0.098100998 0.080146 -0.99998498
-0.079543002 0.075480998 -0.99976099
-0.066118002 0.071822003 -0.99820501
-0.100279 0.049624 -0.999699
-0.080320999 0.045318 -0.99946898
-0.065728001 0.042167 -0.997913
-0.104104 0.013257 -0.99938399
-0.082974002 0.0094579998 -0.99915302
-0.067268997 0.0069180001 -0.99757397
-0.110657 -0.028720001 -0.99907601
-0.088802002 -0.031167001 -0.99882901
-0.071970999 -0.032221001 -0.99721998
-0.098333001 -0.074689001 -0.99830598
-0.120344 -0.074854001 -0.99857497
-0.080353998 -0.072875999 -0.99670398
-0.109027 -0.115481 -0.99641901
-0.130885 -0.118813 -0.99664998
-0.090098999 -0.109976 -0.99508601
-0.18145099 -0.149817 -0.99185199
-0.20292699 -0.159475 -0.98300999
-0.20131101 -0.140149 -0.99185199
-0.18387599 -0.16969299 -0.982934
-0.160789 -0.154116 -0.99185199
-0.16427 -0.17377201 -0.982934
-0.184783 -0.174759 -0.96989501
-0.20415699 -0.16439401 -0.97014898
-0.16488799 -0.17889801 -0.96989501
-0.184508 -0.16891301 -0.953013
-0.204877 -0.158778 -0.953583
-0.163451 -0.17329399 -0.953013
-0.204905 -0.146016 -0.93405199
-0.18328799 -0.155561 -0.932989
-0.160634 -0.160235 -0.93298101
-0.20384599 -0.127592 -0.913912
-0.18093599 -0.13615 -0.91224802
-0.156572 -0.14089601 -0.91217101
-0.17715999 -0.111635 -0.89364898
-0.20125 -0.10451 -0.89592898
-0.15125901 -0.115931 -0.89339501
-0.17189699 -0.083310999 -0.87926298
-0.196899 -0.07767 -0.88212001
-0.14488199 -0.086455002 -0.87866998
-0.166014 -0.053831 -0.86794901
-0.191505 -0.047550999 -0.87147599
-0.13838001 -0.055438999 -0.866925
-0.16060901 -0.026184 -0.85780603
-0.186011 -0.014527 -0.86223501
-0.132879 -0.026319001 -0.856305
-0.15205701 0.085611999 -0.86697102
-0.166978 0.096938998 -0.88017899
-0.17383599 0.077169999 -0.86909699
-0.1481 0.098586001 -0.87826198
-0.12898999 0.084650002 -0.86613202
-0.127213 0.096731 -0.87800699
-0.16165701 0.11172 -0.890939
-0.14415801 0.110919 -0.88942099
-0.12469 0.108254 -0.88939101
-0.1585 0.123967 -0.90392298
-0.140985 0.122802 -0.90283698
-0.121775 0.119405 -0.90283698
-0.15780801 0.135502 -0.92081302
-0.13912 0.134187 -0.92004299
-0.118836 0.130145 -0.92004299
-0.138247 0.144088 -0.93926603
-0.158564 0.145623 -0.93981999
-0.116273 0.139539 -0.93926603
-0.137835 0.151282 -0.95788801
-0.159418 0.153001 -0.95828801
-0.114502 0.14642701 -0.95788801
-0.13751701 0.15462901 -0.97367603
-0.159428 0.156434 -0.97393
-0.11383 0.149701 -0.97367603
-0.137585 0.153327 -0.985906
-0.15926699 0.15525 -0.98603702
-0.114144 0.14845 -0.985906
-0.138495 0.146653 -0.99421602
-0.16001 0.148911 -0.99425501
-0.115224 0.141811 -0.99421602
-0.140609 0.134029 -0.99854499
-0.162513 0.136952 -0.99854499
-0.116896 0.129096 -0.99854499
-0.143916 0.115444 -1
-0.16674501 0.119214 -0.99999201
-0.119175 0.110296 -1
-0.14831001 0.091025002 -0.99999201
-0.17245799 0.095616996 -0.99998498
-0.122124 0.085577004 -0.99999201
-0.15364601 0.060814001 -0.999699
-0.179258 0.066055998 -0.999699
-0.125866 0.055034 -0.999699
-0.186205 0.030339001 -0.99938399
-0.159605 0.024491001 -0.99938399
-0.130794 0.018495999 -0.99938399
-0.192214 -0.011751 -0.99907601
-0.165828 -0.018355001 -0.99909103
-0.137366 -0.024277 -0.99909103
-0.196483 -0.059012 -0.99857497
-0.17191599 -0.066638999 -0.99859798
-0.145639 -0.072105996 -0.99859798
-0.19931901 -0.104575 -0.99664998
-0.17732 -0.113308 -0.99668002
-0.154089 -0.118142 -0.99668002
-0.23555 -0.109195 -0.99126601
-0.249641 -0.097345002 -0.98301798
-0.245685 -0.094080999 -0.98986501
-0.237983 -0.122059 -0.98318702
-0.219988 -0.125673 -0.99177498
-0.2216 -0.143225 -0.98314101
-0.25250801 -0.097484 -0.97158098
-0.24020401 -0.125273 -0.97115803
-0.223269 -0.14775699 -0.97061801
-0.241395 -0.121366 -0.95578599
-0.25341201 -0.094495997 -0.95650899
-0.224456 -0.142869 -0.95464599
-0.240907 -0.112574 -0.93802601
-0.25176999 -0.088673003 -0.939143
-0.224663 -0.13168401 -0.93600798
-0.238764 -0.099976003 -0.92018902
-0.24817801 -0.081501998 -0.92246097
-0.22357 -0.115439 -0.91691601
-0.23516101 -0.084358998 -0.90490901
-0.24351799 -0.074763998 -0.90985399
-0.220898 -0.094897002 -0.89994901
-0.23129401 -0.062311001 -0.89449698
-0.241861 -0.055996001 -0.90460098
-0.21664099 -0.070246004 -0.88717198
-0.225499 -0.035700999 -0.88701802
-0.23683199 -0.030255999 -0.89956403
-0.211023 -0.042137999 -0.87818402
-0.21833301 -0.0056779999 -0.88282102
-0.22934601 -0.000106 -0.89634502
-0.204698 -0.011086 -0.872401
-0.21070001 0.026105 -0.88238198
-0.220346 0.031711999 -0.89609802
-0.200937 0.021228001 -0.87204599
-0.190308 0.018278999 -0.86245799
-0.20253 0.056462999 -0.88463098
-0.210885 0.061725002 -0.89816999
-0.19456699 0.052228 -0.87437999
-0.186148 0.049532998 -0.86490703
-0.19445699 0.081784002 -0.88848901
-0.202043 0.086277999 -0.90145898
-0.18587901 0.078763999 -0.87856197
-0.187627 0.099446997 -0.89346498
-0.19475 0.102768 -0.90507102
-0.179204 0.097815 -0.88569301
-0.182606 0.11139 -0.89998001
-0.189328 0.112801 -0.908921
-0.174063 0.111553 -0.89430398
-0.18015 0.120605 -0.90919101
-0.185949 0.119032 -0.91314203
-0.171417 0.122801 -0.90607202
-0.182072 0.12984499 -0.924016
-0.189593 0.125186 -0.92554897
-0.171946 0.133725 -0.92227602
-0.185436 0.13899601 -0.94193
-0.194189 0.13286699 -0.94254601
-0.17408399 0.14364301 -0.94085199
-0.18810301 0.146125 -0.959782
-0.19757 0.139424 -0.96021402
-0.175947 0.151022 -0.95902002
-0.18856899 0.14964201 -0.974877
-0.198166 0.14280701 -0.97513199
-0.176218 0.154532 -0.97439998
-0.196799 0.14337 -0.98612201
-0.187896 0.149336 -0.986368
-0.17587 0.15366399 -0.98626
-0.194895 0.14207201 -0.99252999
-0.187791 0.145339 -0.993846
-0.17644 0.148111 -0.99427003
-0.191366 0.136196 -0.99715799
-0.199542 0.134721 -0.99385399
-0.17937 0.137366 -0.998375
-0.19721401 0.121598 -0.99825197
-0.20619801 0.121789 -0.994201
-0.184432 0.121052 -0.99976099
-0.204925 0.100702 -0.99820501
-0.21461099 0.10216 -0.99401599
-0.19125 0.098723002 -0.99976099
-0.21388701 0.072993003 -0.997913
-0.224288 0.075204998 -0.99368501
-0.19926099 0.070064999 -0.99946898
-0.222655 0.039248999 -0.99757397
-0.23377199 0.042236 -0.99330699
-0.20716099 0.035296999 -0.99915302
-0.24136101 0.0050539998 -0.99290699
-0.229582 0.00057199999 -0.99721998
-0.213461 -0.0052299998 -0.99882901
-0.24572399 -0.033814002 -0.99244499
-0.23348799 -0.041014001 -0.99670398
-0.21711899 -0.049973 -0.99830598
-0.246997 -0.068917997 -0.991575
-0.235084 -0.079810001 -0.99508601
-0.21889301 -0.092620999 -0.99641901
-0.254235 -0.066255003 -0.98377299
-0.25826201 -0.064645 -0.97193599
-0.258809 -0.062766001 -0.95650899
-0.25394601 -0.030118 -0.98430401
-0.25819999 -0.028479001 -0.972166
-0.25823301 -0.027806001 -0.956155
-0.249376 0.0077570002 -0.98475099
-0.25338 0.0088090003 -0.97246701
-0.25292 0.0084779998 -0.95598501
-0.25579101 -0.059804998 -0.93838
-0.249862 -0.056974001 -0.92008901
-0.25403199 -0.027364001 -0.93687803
-0.24651401 -0.027835 -0.91697699
-0.24788 0.0069619999 -0.93582302
-0.23949701 0.0041589998 -0.914805
-0.24131601 0.044236001 -0.98520499
-0.244984 0.044952001 -0.97295201
-0.24419001 0.044025999 -0.95641702
-0.231324 0.076880001 -0.985668
-0.23467401 0.077450998 -0.97356802
-0.23371901 0.076167002 -0.95731002
-0.221149 0.103429 -0.98609102
-0.224232 0.103745 -0.97421497
-0.223271 0.102075 -0.95837301
-0.238763 0.041242 -0.93608499
-0.230185 0.036966 -0.91482103
-0.22829001 0.072572999 -0.93737102
-0.21999501 0.067411996 -0.916538
-0.21811301 0.097809002 -0.93911099
-0.21035799 0.092037998 -0.91907197
-0.21215899 0.122341 -0.986422
-0.21500701 0.122126 -0.974778
-0.21416 0.119863 -0.95935899
-0.20421401 0.134966 -0.98649198
-0.206596 0.134296 -0.975124
-0.20590299 0.131383 -0.96003699
-0.20945001 0.114818 -0.94076002
-0.202351 0.10845 -0.92162102
-0.20179 0.125524 -0.94200701
-0.195654 0.118521 -0.92385501
-0.084274001 0.37319499 -0.98986501
-0.068173997 0.39589199 -0.98377299
-0.081501998 0.36853099 -0.98301798
-0.075746998 0.39631 -0.991575
-0.057971001 0.429966 -0.98430401
-0.066768996 0.429811 -0.99244499
-0.059602998 0.46809599 -0.99290699
-0.051286999 0.46740201 -0.98475099
-0.063923001 0.39577901 -0.97193599
-0.078847997 0.36724401 -0.97158098
-0.053498998 0.42978999 -0.972166
-0.047219999 0.46677399 -0.97246701
-0.077133 0.36968699 -0.95650899
-0.062864996 0.397324 -0.95650899
-0.053273 0.430408 -0.956155
-0.047749002 0.46664801 -0.95598501
-0.076961003 0.37585899 -0.939134
-0.064796001 0.40139201 -0.938357
-0.057025999 0.432623 -0.93685502
-0.052855 0.46738601 -0.93579203
-0.078070998 0.38431799 -0.92237598
-0.069223002 0.406919 -0.91994202
-0.063763 0.43594101 -0.91676199
-0.061058 0.469035 -0.91455102
-0.079988003 0.393264 -0.90956801
-0.075580001 0.41235501 -0.90410799
-0.072306 0.43954799 -0.89883202
-0.070513003 0.47156599 -0.89549798
-0.048287999 0.504933 -0.98520499
-0.055957001 0.50609899 -0.99330699
-0.048216 0.53964001 -0.985668
-0.055312 0.54090703 -0.99368501
-0.050083 0.56869501 -0.98609102
-0.056593999 0.57014197 -0.99401599
-0.044633999 0.50412601 -0.97295201
-0.044902999 0.53882599 -0.97356802
-0.047093 0.56774801 -0.97421497
-0.045649 0.50357699 -0.95641702
-0.046172 0.53800398 -0.95731002
-0.04848 0.566567 -0.95837301
-0.051509999 0.50327802 -0.93605399
-0.052308001 0.53692597 -0.937356
-0.054586999 0.56471902 -0.93910402
-0.060495 0.50361699 -0.91459799
-0.061547998 0.53617901 -0.916399
-0.063712001 0.56298202 -0.919011
-0.070408002 0.505077 -0.89536703
-0.071621001 0.53655797 -0.89770001
-0.073638998 0.56243098 -0.90124297
-0.053049002 0.590096 -0.986422
-0.058809999 0.59198302 -0.994201
-0.056855001 0.605165 -0.98649198
-0.061317001 0.606821 -0.99385399
-0.063552998 0.61560398 -0.99252999
-0.061386 0.61605501 -0.98612201
-0.050434999 0.588745 -0.974778
-0.054811001 0.60357398 -0.975124
-0.060265999 0.61497402 -0.97513199
-0.051886 0.586959 -0.95935899
-0.056306001 0.60111701 -0.96003699
-0.061806001 0.61203599 -0.96021402
-0.057806 0.584171 -0.94076002
-0.061894 0.59730101 -0.94199997
-0.066898003 0.607256 -0.94254601
-0.066543996 0.58141798 -0.921606
-0.069861002 0.593409 -0.92385501
-0.073544003 0.60201001 -0.92554897
-0.075934999 0.58013499 -0.905002
-0.077928998 0.59116298 -0.90891403
-0.079029001 0.59801799 -0.91314203
-0.13932399 0.34781301 -0.99185199
-0.12115 0.33673501 -0.98314101
-0.143407 0.32900101 -0.98300999
-0.117578 0.35387799 -0.99177498
-0.09962 0.350012 -0.98318702
-0.098177999 0.36308199 -0.99126601
-0.120896 0.33180201 -0.97061801
-0.143677 0.323881 -0.97014898
-0.098465003 0.34609601 -0.97115803
-0.14137299 0.32886899 -0.953583
-0.118363 0.335917 -0.95464599
-0.096212998 0.349287 -0.95578599
-0.137556 0.34094101 -0.93402898
-0.114854 0.34643599 -0.93597698
-0.094076999 0.35781199 -0.93800998
-0.132576 0.35931799 -0.91372699
-0.110665 0.36279199 -0.91671598
-0.092110001 0.370978 -0.92005002
-0.126601 0.38378599 -0.895298
-0.105844 0.38493699 -0.89928699
-0.090075999 0.38836801 -0.90442401
-0.119923 0.41384599 -0.88073403
-0.100347 0.41291499 -0.885701
-0.085895002 0.412716 -0.89346498
-0.113336 0.447878 -0.86951298
-0.095288001 0.44500399 -0.87595099
-0.082315996 0.44233799 -0.88542402
-0.091670997 0.479105 -0.869959
-0.107756 0.48398599 -0.860448
-0.080109999 0.474942 -0.88099599
-0.088577002 0.51159602 -0.86975902
-0.098420002 0.51527798 -0.860309
-0.079595 0.50793099 -0.88078803
-0.089527003 0.54156297 -0.87285501
-0.098806001 0.54459602 -0.86334401
-0.080797002 0.53856897 -0.883591
-0.093195997 0.567101 -0.877931
-0.106862 0.57158399 -0.868581
-0.082923003 0.56388301 -0.888035
-0.094347 0.58513898 -0.88550901
-0.10726 0.58993399 -0.88002503
-0.084665 0.581595 -0.89332598
-0.094269998 0.59800601 -0.89427298
-0.10651 0.60353398 -0.89091498
-0.085422002 0.593481 -0.899957
-0.104327 0.61459202 -0.90392298
-0.092261001 0.60813099 -0.90607202
-0.084316999 0.60216999 -0.90919101
-0.1007 0.62478602 -0.92081302
-0.087849997 0.61736602 -0.92227602
-0.079351 0.609523 -0.924016
-0.096712001 0.63365197 -0.93981999
-0.082690999 0.62552202 -0.94085199
-0.073357001 0.61655998 -0.94193
-0.093722001 0.64019102 -0.95828801
-0.078763999 0.631661 -0.95902002
-0.06876 0.622154 -0.959782
-0.092716999 0.64341301 -0.97393
-0.077491 0.63485003 -0.97439998
-0.067303002 0.62527102 -0.974877
-0.07807 0.634175 -0.98626
-0.093212999 0.64236701 -0.98603702
-0.068023004 0.62525499 -0.986368
-0.079144001 0.62872702 -0.99427003
-0.094351999 0.63611001 -0.99425501
-0.069282003 0.62154001 -0.993846
-0.095466003 0.62386203 -0.99854499
-0.079506002 0.61744702 -0.998375
-0.068571001 0.611507 -0.99715799
-0.096629001 0.60548502 -0.99999201
-0.079476997 0.60007501 -0.99976099
-0.067308001 0.595429 -0.99825197
-0.098100998 0.58100599 -0.99998498
-0.079543002 0.57634097 -0.99976099
-0.066118002 0.57268101 -0.99820501
-0.100279 0.550484 -0.999699
-0.080320999 0.54617798 -0.99946898
-0.065728001 0.54302597 -0.997913
-0.104104 0.514117 -0.99938399
-0.082974002 0.51031798 -0.99915302
-0.067268997 0.50777799 -0.99757397
-0.110657 0.47214001 -0.99907601
-0.088802002 0.46969199 -0.99882901
-0.071970999 0.46863899 -0.99721998
-0.098333001 0.42617199 -0.99830598
-0.120344 0.42600599 -0.99857497
-0.080353998 0.427984 -0.99670398
-0.109027 0.38537899 -0.99641901
-0.130885 0.38204601 -0.99664998
-0.090098999 0.39088401 -0.99508601
-0.18145099 0.35104299 -0.99185199
-0.20292699 0.34138501 -0.98300999
-0.20131101 0.36071101 -0.99185199
-0.18387599 0.33116701 -0.982934
-0.160789 0.346744 -0.99185199
-0.16427 0.327088 -0.982934
-0.184783 0.32610101 -0.96989501
-0.20415699 0.336465 -0.97014898
-0.16488799 0.321962 -0.96989501
-0.184508 0.331947 -0.953013
-0.204877 0.34208199 -0.953583
-0.163451 0.327566 -0.953013
-0.204905 0.354886 -0.93405199
-0.18328799 0.34533501 -0.932989
-0.160634 0.34064901 -0.93298101
-0.20384599 0.37360299 -0.913912
-0.18093599 0.36499801 -0.91224802
-0.156572 0.36015001 -0.91217101
-0.17715999 0.39019701 -0.89364898
-0.20125 0.39748001 -0.89592898
-0.15125901 0.385557 -0.89339501
-0.17190699 0.41970399 -0.87931699
-0.19687299 0.42573899 -0.88215101
-0.144905 0.41576499 -0.87874699
-0.16609301 0.45032799 -0.86841899
-0.19128899 0.45750099 -0.87171501
-0.138566 0.44730401 -0.86752599
-0.16087399 0.478392 -0.859393
-0.18528201 0.49186501 -0.86304301
-0.133508 0.47611201 -0.858338
-0.14758 0.58977699 -0.86732501
-0.16284899 0.60237998 -0.88011801
-0.168512 0.58433503 -0.86890399
-0.144576 0.60210901 -0.878362
-0.125062 0.59758902 -0.878362
-0.126518 0.58508199 -0.86730999
-0.159115 0.61530399 -0.89093
-0.141974 0.61344802 -0.88943601
-0.123296 0.60921299 -0.88943601
-0.15737 0.62602699 -0.90392298
-0.140012 0.62440699 -0.90283698
-0.121148 0.62032002 -0.90283698
-0.138832 0.63526899 -0.92004299
-0.157474 0.63671702 -0.92081302
-0.118649 0.63102001 -0.92004299
-0.138211 0.64497602 -0.93926603
-0.15852199 0.64652699 -0.93981999
-0.11625 0.64040101 -0.93926603
-0.137835 0.65214199 -0.95788801
-0.159418 0.65385997 -0.95828801
-0.114502 0.64728701 -0.95788801
-0.13751701 0.65548998 -0.97367603
-0.159428 0.65729302 -0.97393
-0.11383 0.65056098 -0.97367603
-0.137585 0.65418601 -0.985906
-0.15926699 0.65610999 -0.98603702
-0.114144 0.64930898 -0.985906
-0.138495 0.64751202 -0.99421602
-0.16001 0.64977098 -0.99425501
-0.115224 0.64267099 -0.99421602
-0.140609 0.63488901 -0.99854499
-0.162513 0.63781101 -0.99854499
-0.116896 0.62995499 -0.99854499
-0.143916 0.61630398 -1
-0.16674501 0.62007397 -0.99999201
-0.119175 0.611157 -1
-0.14831001 0.59188598 -0.99999201
-0.17245799 0.59647697 -0.99998498
-0.122124 0.58643699 -0.99999201
-0.15364601 0.56167501 -0.999699
-0.179258 0.566917 -0.999699
-0.125866 0.55589402 -0.999699
-0.186205 0.53119898 -0.99938399
-0.159605 0.52535099 -0.99938399
-0.130794 0.51935601 -0.99938399
-0.192214 0.48910901 -0.99907601
-0.165828 0.48250499 -0.99909103
-0.137366 0.476583 -0.99909103
-0.196483 0.441847 -0.99857497
-0.17191599 0.434221 -0.99859798
-0.145639 0.428754 -0.99859798
-0.19931901 0.39628601 -0.99664998
-0.17732 0.38755101 -0.99668002
-0.154089 0.38271901 -0.99668002
-0.23555 0.39166501 -0.99126601
-0.249641 0.40351599 -0.98301798
-0.245685 0.40677899 -0.98986501
-0.237983 0.37880099 -0.98318702
-0.219988 0.375186 -0.99177498
-0.2216 0.35763499 -0.98314101
-0.25250801 0.40337601 -0.97158098
-0.24020401 0.37558699 -0.97115803
-0.223269 0.353102 -0.97061801
-0.241395 0.37949401 -0.95578599
-0.25341201 0.40636501 -0.95650899
-0.224456 0.35799 -0.95464599
-0.240907 0.38830999 -0.93802601
-0.25176999 0.4122 -0.939143
-0.224663 0.36921099 -0.93600798
-0.238764 0.40107799 -0.92018902
-0.24817801 0.41947001 -0.92246097
-0.22357 0.38571 -0.91691601
-0.23516101 0.41715601 -0.90490901
-0.24351799 0.42647299 -0.90985399
-0.220898 0.406939 -0.89994901
-0.231271 0.43998 -0.89449698
-0.241851 0.44553301 -0.90460098
-0.216608 0.432818 -0.88717997
-0.225318 0.46755001 -0.88702601
-0.23674899 0.47168499 -0.89956403
-0.21077099 0.46239901 -0.878254
-0.21772 0.498463 -0.88284397
-0.229063 0.50223702 -0.89634502
-0.203844 0.494764 -0.872639
-0.209296 0.53087598 -0.88239002
-0.21971799 0.53433001 -0.89609802
-0.198699 0.528189 -0.87211603
-0.18753999 0.52632397 -0.86270499
-0.20034 0.56142998 -0.88462299
-0.209913 0.56442899 -0.89816999
-0.190989 0.55951703 -0.87432599
-0.181493 0.55803001 -0.86470699
-0.191916 0.58639199 -0.88848102
-0.200914 0.58883297 -0.90145898
-0.181749 0.58532202 -0.87850797
-0.185454 0.60317397 -0.893457
-0.193773 0.60493201 -0.90507102
-0.175782 0.60296899 -0.88567799
-0.181201 0.61400998 -0.89998001
-0.18867201 0.61449099 -0.908921
-0.171891 0.61501801 -0.89429599
-0.17949501 0.62227702 -0.90919101
-0.185572 0.620363 -0.91314203
-0.17044 0.62481898 -0.90607202
-0.181877 0.63094598 -0.924016
-0.189482 0.626185 -0.92554897
-0.17165799 0.63492799 -0.92227602
-0.185412 0.63988602 -0.94193
-0.194176 0.633744 -0.94254601
-0.17404801 0.64454597 -0.94085199
-0.18810301 0.64698499 -0.959782
-0.19757 0.640284 -0.96021402
-0.175947 0.65188199 -0.95902002
-0.18856899 0.65050203 -0.974877
-0.198166 0.64366698 -0.97513199
-0.176218 0.65539199 -0.97439998
-0.196799 0.64423001 -0.98612201
-0.187896 0.65019602 -0.986368
-0.17587 0.65452403 -0.98626
-0.194895 0.642932 -0.99252999
